-0.877099 -1.033560 -3.926020 -0.421244 -0.175552 0.889795 
-0.790588 -1.109840 -3.878660 -0.508203 -0.071892 0.858232 
-0.785195 -1.122330 -3.876250 -0.508203 -0.071892 0.858232 
-0.780975 -1.102220 -3.873290 -0.477298 0.005423 0.878725 
-0.766922 -1.116130 -3.865530 -0.440359 -0.023244 0.897521 
-0.764293 -1.094840 -3.864670 -0.417504 0.062681 0.906511 
-0.865728 -1.218620 -4.008930 0.105213 -0.992977 -0.054098 
-0.870349 -1.214900 -4.001240 0.308322 -0.504330 0.806591 
-0.832328 -1.211060 -4.024310 0.209244 -0.754893 0.621574 
-0.844002 -1.215430 -4.021530 0.388366 -0.920472 -0.043627 
-0.873102 -1.215290 -4.019960 -0.060121 -0.986413 -0.152887 
-0.821399 -1.210930 -4.028210 0.152905 -0.842068 0.517244 
-0.821241 -1.205860 -4.021630 -0.114742 -0.734220 0.669145 
-0.825214 -1.212330 -4.032530 0.152905 -0.842068 0.517244 
-0.817989 -1.213060 -4.031330 0.152905 -0.842068 0.517244 
-0.923760 -1.218650 -4.003830 -0.317093 -0.512391 0.798065 
-0.913764 -1.219270 -4.002720 -0.067846 -0.740267 0.668880 
-0.917341 -1.216970 -3.998580 -0.260820 -0.644255 0.718964 
-0.911197 -1.144130 -3.975970 -0.399911 -0.221821 0.889307 
-0.912321 -1.165870 -3.982770 -0.272580 -0.271726 0.922965 
-0.894729 -1.188900 -3.987830 -0.073004 -0.320349 0.944482 
-0.915849 -1.181250 -3.988260 -0.451298 -0.212205 0.866775 
-0.874393 -1.164090 -3.978040 0.094117 -0.360539 0.927984 
-0.882286 -1.176690 -3.983010 0.042024 -0.383224 0.922699 
-0.829273 -1.162430 -4.203670 -0.762125 -0.461229 -0.454349 
-0.845939 -1.169220 -4.176050 -0.470527 -0.056367 -0.880584 
-0.838000 -1.150550 -4.199280 -0.809312 -0.307048 -0.500736 
-0.648012 -1.200790 -4.085050 -0.022528 -0.962656 -0.269789 
-0.632323 -1.204370 -4.073620 -0.017923 -0.964347 -0.264032 
-0.649625 -1.206010 -4.065800 -0.022697 -0.964017 -0.264869 
-0.687371 -1.197740 -4.093600 -0.030782 -0.962452 -0.269702 
-0.698557 -1.202910 -4.074420 -0.020308 -0.961225 -0.275017 
-0.707404 -1.197240 -4.092990 -0.019554 -0.963424 -0.267269 
-0.740584 -1.203540 -4.069540 -0.013839 -0.963438 -0.267572 
-0.718577 -1.202590 -4.073590 -0.015114 -0.963394 -0.267664 
-0.731675 -1.207790 -4.055180 -0.005701 -0.962158 -0.272432 
-0.630065 -1.217860 -4.022650 -0.016450 -0.964807 -0.262444 
-0.617529 -1.192610 -4.115910 -0.012864 -0.964545 -0.263604 
-0.605945 -1.195750 -4.105650 -0.010997 -0.963156 -0.268720 
-0.631004 -1.195400 -4.105620 -0.005714 -0.962460 -0.271364 
-0.590617 -1.191730 -4.120290 -0.003155 -0.964416 -0.264372 
-0.657453 -1.197750 -4.094810 -0.022083 -0.966955 -0.253988 
-0.648698 -1.195090 -4.106550 -0.011628 -0.963530 -0.267348 
-0.579483 -1.194800 -4.109760 -0.011940 -0.964463 -0.263948 
-0.583796 -1.199180 -4.093540 -0.012739 -0.963207 -0.268457 
-0.627961 -1.208860 -4.056780 -0.010451 -0.965571 -0.259930 
-0.637905 -1.211180 -4.047050 -0.016419 -0.964815 -0.262417 
-0.649369 -1.218270 -4.020580 -0.004493 -0.965127 -0.261744 
-0.610412 -1.205150 -4.070780 -0.008764 -0.964978 -0.262183 
-0.558860 -1.185770 -4.143220 -0.002178 -0.963543 -0.267546 
-0.548370 -1.189790 -4.128730 -0.003790 -0.964598 -0.263696 
-0.565873 -1.189560 -4.129560 -0.007958 -0.964629 -0.263490 
-0.346878 -1.207360 -4.077820 -0.011269 -0.966917 -0.254842 
-0.363254 -1.206680 -4.079700 -0.008355 -0.966785 -0.255453 
-0.380238 -1.208010 -4.074790 -0.001065 -0.965608 -0.259999 
-0.284975 -1.188470 -4.149640 -0.022298 -0.950576 -0.309690 
-0.264562 -1.191190 -4.141890 -0.015534 -0.964415 -0.263936 
-0.285133 -1.193240 -4.132870 -0.019297 -0.962044 -0.272211 
-0.287249 -1.199520 -4.111210 -0.027913 -0.971950 -0.233526 
-0.303006 -1.196650 -4.118750 -0.023712 -0.963287 -0.267424 
-0.263567 -1.185010 -4.164990 0.291608 -0.664813 -0.687741 
-0.312416 -1.189140 -4.146370 -0.006526 -0.964586 -0.263686 
-0.309373 -1.192520 -4.134410 -0.009318 -0.965991 -0.258409 
-0.331476 -1.184800 -4.161870 -0.021130 -0.964977 -0.261481 
-0.332850 -1.191840 -4.136360 -0.030386 -0.956172 -0.291225 
-0.332887 -1.195430 -4.124590 -0.015941 -0.964605 -0.263216 
-0.389347 -1.186800 -4.152050 -0.003129 -0.964004 -0.265869 
-0.371668 -1.189090 -4.143310 0.016633 -0.964081 -0.265086 
-0.388915 -1.192200 -4.132160 -0.005323 -0.964164 -0.265255 
-0.408963 -1.190370 -4.138090 -0.012450 -0.963679 -0.266773 
-0.368592 -1.184480 -4.160480 -0.001339 -0.964473 -0.264176 
-0.349547 -1.187480 -4.149670 -0.028891 -0.968015 -0.249225 
-0.355398 -1.189700 -4.139260 -0.020484 -0.960218 -0.278500 
-0.289111 -1.201620 -4.099380 -0.009305 -0.971831 -0.235495 
-0.304671 -1.204130 -4.089990 0.007489 -0.964438 -0.264203 
-0.326425 -1.206930 -4.080440 -0.019515 -0.970846 -0.238909 
-0.332344 -1.212450 -4.060370 0.032639 -0.996879 -0.071878 
-0.329536 -1.203200 -4.096230 -0.000520 -0.966466 -0.256796 
-0.315814 -1.200950 -4.102720 0.016934 -0.966130 -0.257499 
-0.327157 -1.198610 -4.111770 -0.002122 -0.965308 -0.261106 
-0.349881 -1.198490 -4.111640 -0.026516 -0.963118 -0.267771 
-0.357350 -1.196080 -4.119430 -0.010747 -0.956286 -0.292237 
-0.354474 -1.203330 -4.093820 -0.016310 -0.968219 -0.249572 
-0.342816 -1.203970 -4.091190 -0.014966 -0.971914 -0.234860 
-0.366120 -1.202070 -4.096820 -0.023246 -0.967612 -0.251369 
-0.369639 -1.199440 -4.106610 -0.008361 -0.964557 -0.263744 
-0.287292 -1.084820 -4.197180 0.746053 -0.038708 -0.664761 
-0.282528 -1.058090 -4.193540 0.614097 -0.022437 -0.788912 
-0.273335 -1.064440 -4.184640 0.525702 -0.166656 -0.834184 
-0.343428 -1.101940 -4.242650 0.599909 0.102233 -0.793510 
-0.324179 -1.086510 -4.227730 0.569678 0.038001 -0.820989 
-0.330234 -1.107820 -4.232610 0.597594 0.023724 -0.801448 
-0.435178 -1.192990 -4.127430 -0.012957 -0.965454 -0.260250 
-0.401676 -1.182840 -4.165700 -0.010933 -0.962432 -0.271304 
-0.380868 -1.180790 -4.173710 -0.006749 -0.964416 -0.264304 
-0.459523 -1.195080 -4.117390 -0.028152 -0.964382 -0.263012 
-0.468701 -1.198640 -4.103710 -0.026196 -0.962471 -0.270118 
-0.447809 -1.191620 -4.131660 -0.026231 -0.964619 -0.262341 
-0.499639 -1.191170 -4.127580 -0.020805 -0.963467 -0.267016 
-0.489185 -1.191470 -4.127310 -0.028816 -0.964891 -0.261063 
-0.484347 -1.195430 -4.113440 -0.023975 -0.962504 -0.270207 
-0.477777 -1.184290 -4.154550 -0.032687 -0.964144 -0.263361 
-0.475753 -1.187870 -4.142320 -0.030240 -0.963352 -0.266531 
-0.456542 -1.188950 -4.140130 -0.028135 -0.964085 -0.264101 
-0.468423 -1.191470 -4.129840 -0.028329 -0.964607 -0.262167 
-0.510633 -1.173820 -4.190940 -0.018310 -0.965161 -0.261015 
-0.503142 -1.177130 -4.179050 -0.018177 -0.965368 -0.260257 
-0.486028 -1.172900 -4.195890 -0.028456 -0.961199 -0.274384 
-0.469825 -1.157400 -4.253370 -0.041507 -0.963094 -0.265946 
-0.487526 -1.152350 -4.267150 -0.048992 -0.965511 -0.255710 
-0.457172 -1.154740 -4.262830 -0.013549 -0.959861 -0.280150 
-0.489812 -1.156140 -4.251980 -0.032008 -0.956458 -0.290108 
-0.487338 -1.168390 -4.211360 -0.024131 -0.963844 -0.265373 
-0.475411 -1.164390 -4.227700 -0.024230 -0.965088 -0.260803 
-0.454380 -1.163340 -4.233140 -0.012647 -0.964275 -0.264603 
-0.536631 -1.188820 -4.132680 -0.015069 -0.966429 -0.256491 
-0.527555 -1.190830 -4.125050 -0.007584 -0.964282 -0.264768 
-0.537397 -1.184110 -4.149860 -0.026697 -0.966002 -0.257153 
-0.545398 -1.181250 -4.160050 -0.011387 -0.965864 -0.258799 
-0.560084 -1.180200 -4.163260 -0.008804 -0.963691 -0.266876 
-0.527509 -1.178320 -4.172780 -0.025120 -0.965090 -0.260709 
-0.540823 -1.176150 -4.179850 -0.026676 -0.965447 -0.259232 
-0.495490 -1.163360 -4.229460 -0.025556 -0.964012 -0.264627 
-0.505931 -1.159070 -4.244290 -0.006513 -0.956411 -0.291952 
-0.501291 -1.167030 -4.215750 -0.015056 -0.962377 -0.271301 
-0.552914 -1.154380 -4.257240 -0.019040 -0.963079 -0.268545 
-0.572987 -1.152030 -4.265510 -0.021673 -0.962480 -0.270487 
-0.552975 -1.149960 -4.273850 -0.020430 -0.966118 -0.257289 
-0.566765 -1.146890 -4.284420 -0.056369 -0.953488 -0.296112 
-0.568288 -1.157760 -4.244820 -0.007106 -0.963573 -0.267350 
-0.719251 -1.214170 -4.032130 -0.003551 -0.966582 -0.256335 
-0.702072 -1.212180 -4.040530 -0.016283 -0.964915 -0.262058 
-0.703138 -1.215340 -4.028050 -0.020128 -0.964922 -0.261765 
-0.676411 -1.213930 -4.036020 -0.013075 -0.963776 -0.266391 
-0.689153 -1.229320 -3.978600 -0.022055 -0.964346 -0.263725 
-0.680269 -1.232740 -3.966800 -0.022841 -0.965904 -0.257889 
-0.722797 -1.231880 -3.967940 -0.013008 -0.968436 -0.248924 
-0.700534 -1.232900 -3.963800 -0.025090 -0.963637 -0.266034 
-0.708912 -1.235490 -3.954470 -0.017193 -0.967382 -0.252736 
-0.710589 -1.226440 -3.987120 -0.012691 -0.962685 -0.270326 
-0.626318 -1.229040 -3.983570 -0.017483 -0.964429 -0.263762 
-0.636790 -1.226700 -3.990610 -0.018137 -0.962302 -0.271378 
-0.655646 -1.224290 -3.998710 -0.013275 -0.961970 -0.272834 
-0.650688 -1.221670 -4.007660 -0.007534 -0.963280 -0.268394 
-0.679472 -1.208670 -4.054310 -0.014286 -0.962836 -0.269710 
-0.664786 -1.205810 -4.065620 -0.013649 -0.965907 -0.258529 
-0.653724 -1.210560 -4.049060 -0.008814 -0.964015 -0.265702 
-0.660261 -1.214560 -4.034260 -0.007081 -0.965705 -0.259544 
-0.674656 -1.225340 -3.993520 -0.014469 -0.964521 -0.263609 
-0.689036 -1.225320 -3.993240 -0.019053 -0.964901 -0.261921 
-0.674251 -1.218900 -4.017490 -0.015160 -0.965216 -0.261015 
-0.678721 -1.221470 -4.008190 -0.012890 -0.965122 -0.261484 
-0.641949 -1.239530 -3.943350 -0.010574 -0.965110 -0.261630 
-0.643036 -1.243060 -3.931610 -0.009891 -0.958889 -0.283610 
-0.683000 -1.236660 -3.952400 -0.020713 -0.962670 -0.269883 
-0.676445 -1.239300 -3.943660 -0.008193 -0.962485 -0.271213 
-0.662065 -1.241960 -3.934360 -0.014920 -0.964116 -0.265062 
-0.610322 -1.229670 -3.981560 -0.010319 -0.964491 -0.263913 
-0.612157 -1.225990 -3.994690 -0.011966 -0.963327 -0.268063 
-0.879172 -1.065120 -3.934450 -0.481582 -0.243722 0.841830 
-0.888279 -1.106410 -3.954440 -0.305505 -0.384619 0.871054 
-0.937927 -1.066530 -3.975350 -0.643084 -0.242289 0.726456 
-0.930164 -1.049230 -3.964420 -0.609482 -0.221447 0.761244 
-0.938668 -1.039700 -3.969610 -0.715521 -0.186307 0.673290 
-0.910242 -1.056080 -3.952120 -0.556991 -0.247070 0.792917 
-0.920115 -1.071020 -3.963640 -0.578433 -0.216638 0.786437 
-0.928064 -1.102730 -3.977510 -0.649683 -0.171002 0.740723 
-0.934026 -1.090120 -3.979490 -0.683824 -0.214886 0.697287 
-0.951090 -1.075970 -3.992000 -0.721591 -0.220263 0.656346 
-0.923902 -1.162310 -3.987150 -0.553791 -0.210747 0.805544 
-0.923170 -1.139250 -3.981160 -0.552647 -0.169914 0.815911 
-0.920146 -1.195890 -3.993420 -0.300674 -0.246796 0.921242 
-0.599087 -0.906375 -3.870260 -0.150160 0.072579 0.985994 
-0.584404 -0.911923 -3.867170 -0.164432 -0.058161 0.984672 
-0.597644 -0.890284 -3.869360 -0.240153 -0.084937 0.967012 
-0.581942 -0.961621 -3.850580 0.064762 0.300827 0.951477 
-0.590860 -0.945937 -3.855520 0.066054 0.391008 0.918014 
-0.602380 -0.957228 -3.850800 0.013403 0.306599 0.951744 
-0.539068 -0.996824 -3.848330 0.110416 0.227935 0.967395 
-0.545861 -0.974218 -3.853330 0.177268 0.255526 0.950412 
-0.554968 -0.991863 -3.847960 0.101268 0.225516 0.968962 
-0.587098 -0.994674 -3.843230 0.054056 0.175725 0.982954 
-0.577936 -0.984456 -3.846440 0.116521 0.196009 0.973655 
-0.597190 -0.973325 -3.846600 0.037656 0.223153 0.974056 
-0.658435 -0.948143 -3.858980 -0.170952 0.386622 0.906256 
-0.671808 -0.946295 -3.863060 -0.204222 0.270109 0.940922 
-0.640975 -0.979930 -3.849930 -0.233011 0.192149 0.953302 
-0.701933 -0.935317 -3.876310 -0.241644 0.316252 0.917384 
-0.640228 -0.957407 -3.853550 -0.095075 0.327959 0.939896 
-0.639017 -0.940062 -3.859880 -0.123554 0.359474 0.924940 
-0.607984 -0.968445 -3.847620 -0.032711 0.230166 0.972602 
-0.607965 -0.984245 -3.844590 -0.050823 0.187739 0.980903 
-0.620368 -0.959656 -3.850710 -0.063814 0.315364 0.946823 
-0.587651 -0.930368 -3.863530 0.085312 0.291841 0.952655 
-0.769854 -0.979646 -3.896300 -0.324553 0.215263 0.921047 
-0.782967 -0.962810 -3.902820 -0.218829 0.211848 0.952488 
-0.788117 -0.989608 -3.900350 -0.309789 0.109959 0.944426 
-0.737304 -1.228070 -3.981220 0.000138 -0.965010 -0.262215 
-0.747936 -1.231740 -3.968090 0.003933 -0.969347 -0.245666 
-0.772118 -1.225560 -3.989280 -0.029394 -0.966094 -0.256510 
-0.781954 -1.227530 -3.979860 -0.012982 -0.967334 -0.253172 
-0.773332 -1.231490 -3.966860 -0.026064 -0.967509 -0.251489 
-0.753982 -1.214460 -4.030550 -0.018544 -0.962655 -0.270095 
-0.770141 -1.215570 -4.024810 -0.020286 -0.962069 -0.272050 
-0.700969 -1.252940 -3.890990 0.004027 -0.965597 -0.260011 
-0.690346 -1.249800 -3.900290 -0.014151 -0.963344 -0.267895 
-0.693976 -1.255970 -3.879870 -0.025267 -0.981367 -0.190477 
-0.808344 -1.225820 -3.977790 -0.650029 -0.757853 -0.055862 
-0.805814 -1.227620 -3.965710 -0.936914 -0.256177 0.237836 
-0.800566 -1.233090 -3.953480 -0.646329 -0.762036 0.039488 
-0.795719 -1.235300 -3.951940 -0.573029 -0.819519 -0.005143 
-0.801079 -1.231240 -3.950110 -0.599247 -0.800115 0.026838 
-0.792908 -1.209540 -3.925930 -0.908152 -0.221026 0.355537 
-0.791645 -1.235210 -3.930840 -0.682030 -0.692775 0.234303 
-0.788469 -1.213740 -3.918540 -0.848189 -0.277579 0.451137 
-0.796695 -1.198160 -3.928920 -0.885583 -0.299256 0.355231 
-0.720990 -1.249850 -3.902630 -0.009508 -0.964194 -0.265028 
-0.736411 -1.250140 -3.899270 -0.024973 -0.967363 -0.252162 
-0.737634 -1.235130 -3.953450 -0.017482 -0.967913 -0.250677 
-0.750491 -1.236360 -3.948750 -0.003213 -0.968453 -0.249175 
-0.729575 -1.239970 -3.937290 -0.007150 -0.962017 -0.272896 
-0.740952 -1.240650 -3.933530 -0.018956 -0.962519 -0.270553 
-0.772341 -1.246340 -3.910050 -0.441624 -0.887069 0.134446 
-0.766718 -1.247910 -3.906250 -0.528198 -0.820530 0.218491 
-0.744267 -1.244250 -3.921230 -0.024176 -0.959242 -0.281551 
-0.758897 -1.242320 -3.926700 -0.014673 -0.964886 -0.262259 
-0.768201 -1.238080 -3.942330 -0.013467 -0.963039 -0.269025 
-0.765606 -1.215550 -3.887530 -0.715615 -0.275445 0.641892 
-0.771469 -1.196850 -3.886170 -0.680838 -0.243920 0.690624 
-0.781386 -1.193140 -3.895710 -0.736492 -0.264557 0.622567 
-0.751841 -1.210420 -3.871740 -0.588224 -0.270838 0.761997 
-0.751674 -1.196470 -3.867230 -0.608792 -0.170258 0.774844 
-0.753695 -1.225790 -3.879500 -0.650667 -0.287670 0.702764 
-0.761541 -1.234180 -3.890710 -0.708216 -0.252895 0.659146 
-0.736933 -1.153720 -3.855620 -0.382334 -0.074864 0.920986 
-0.717691 -1.157550 -3.848420 -0.330689 -0.035445 0.943074 
-0.732398 -1.135130 -3.852220 -0.350952 -0.039608 0.935555 
-0.722751 -1.199930 -3.852710 -0.308873 -0.185785 0.932782 
-0.734171 -1.197380 -3.856390 -0.335580 -0.189930 0.922666 
-0.749954 -1.158420 -3.862010 -0.462990 -0.108411 0.879709 
-0.758597 -1.141290 -3.864480 -0.480075 -0.106997 0.870678 
-0.792306 -1.141410 -3.887400 -0.635457 -0.268547 0.723932 
-0.804208 -1.124480 -3.891730 -0.646739 -0.246177 0.721890 
-0.808462 -1.175510 -3.932260 -0.804738 -0.510345 0.303225 
-0.799633 -1.185780 -3.923830 -0.830252 -0.376328 0.411169 
-0.838158 -1.146450 -3.980730 0.144786 -0.644095 0.751118 
-0.826212 -1.202580 -4.020850 0.168867 -0.666432 0.726190 
-0.825208 -1.190820 -4.015880 -0.407800 -0.605031 0.683840 
-0.830914 -1.186950 -4.009120 0.092108 -0.483188 0.870658 
-0.845649 -1.171040 -3.989280 0.285042 -0.622179 0.729140 
-0.843069 -1.179630 -3.996510 0.405329 -0.471189 0.783383 
-0.832301 -1.182640 -4.003310 0.525847 -0.368203 0.766754 
-0.838791 -1.168610 -3.991040 0.581082 -0.799637 0.151409 
-0.845142 -1.168090 -3.984340 0.293783 -0.626649 0.721806 
-0.824232 -1.167670 -4.004760 0.606531 -0.381156 0.697740 
-0.831272 -1.159630 -3.995460 0.613835 -0.410564 0.674274 
-0.825282 -1.173140 -4.006030 0.583832 -0.313889 0.748742 
-0.832294 -1.154020 -3.989720 -0.778809 -0.607121 0.157676 
-0.835757 -1.148460 -3.983660 0.144786 -0.644095 0.751118 
-0.837768 -1.150880 -3.984590 0.144786 -0.644095 0.751118 
-0.829292 -1.160280 -3.988730 0.613835 -0.410564 0.674274 
-0.827061 -1.162200 -3.996640 -0.631245 -0.761755 0.145809 
-0.716347 -1.138370 -3.846720 -0.314148 -0.022272 0.949113 
-0.514732 -1.260800 -3.849620 -0.139252 -0.571520 0.808686 
-0.505891 -1.254640 -3.846500 0.509317 -0.476024 0.716937 
-0.507976 -1.225160 -3.838190 -0.092274 -0.212182 0.972864 
-0.489991 -1.234000 -3.839740 0.034490 -0.238686 0.970484 
-0.498150 -1.220010 -3.836650 -0.013496 -0.215092 0.976501 
-0.524006 -1.252410 -3.847150 -0.083985 -0.434882 0.896562 
-0.562169 -1.247200 -3.851450 -0.090875 -0.353361 0.931063 
-0.571238 -1.240450 -3.849690 0.037747 -0.200862 0.978892 
-0.539624 -1.242330 -3.846440 -0.150445 -0.262349 0.953173 
-0.603375 -1.231920 -3.844770 0.102578 -0.233680 0.966888 
-0.601333 -1.204500 -3.838160 0.109948 -0.246253 0.962949 
-0.589443 -1.242370 -3.848880 0.057673 -0.328675 0.942681 
-0.628773 -1.199330 -3.834550 -0.004713 -0.253801 0.967245 
-0.618505 -1.190110 -3.832730 0.041520 -0.173968 0.983876 
-0.637812 -1.185710 -3.831830 -0.048417 -0.179447 0.982575 
-0.722436 -1.182970 -3.850860 -0.360893 -0.068977 0.930053 
-0.644448 -1.199550 -3.835350 -0.078728 -0.202709 0.976069 
-0.658525 -1.193780 -3.835600 -0.135362 -0.184059 0.973550 
-0.649047 -1.179010 -3.831890 -0.118044 -0.131188 0.984304 
-0.584556 -1.259630 -3.872760 -0.149260 -0.988101 0.037117 
-0.598117 -1.259100 -3.873040 -0.093813 -0.970493 -0.222133 
-0.412114 -1.245280 -3.938930 -0.010639 -0.961038 -0.276210 
-0.415386 -1.248050 -3.928830 -0.011362 -0.963332 -0.268070 
-0.417594 -1.239890 -3.956040 -0.010904 -0.964521 -0.263782 
-0.408312 -1.242020 -3.951840 -0.027167 -0.960136 -0.278210 
-0.390151 -1.238490 -3.964510 -0.009649 -0.965581 -0.259922 
-0.574714 -1.223260 -3.845980 0.017222 -0.233771 0.972139 
-0.586462 -1.214540 -3.842740 0.124249 -0.228199 0.965654 
-0.559972 -1.236560 -3.848510 -0.017073 -0.225377 0.974122 
-0.559182 -1.219970 -3.844930 -0.076770 -0.212478 0.974145 
-0.428240 -1.252920 -3.910850 -0.020432 -0.968075 -0.249827 
-0.434328 -1.249150 -3.924600 -0.008073 -0.965200 -0.261388 
-0.450688 -1.253100 -3.908530 -0.019532 -0.967270 -0.252995 
-0.457753 -1.256270 -3.895590 -0.035648 -0.963704 -0.264582 
-0.393125 -1.229730 -3.996980 -0.014465 -0.966540 -0.256108 
-0.394469 -1.234220 -3.980600 -0.012479 -0.966256 -0.257280 
-0.378637 -1.232920 -3.985450 -0.004188 -0.968837 -0.247663 
-0.401936 -1.237360 -3.967470 -0.002202 -0.964727 -0.263242 
-0.427338 -1.237650 -3.966390 -0.004579 -0.964985 -0.262266 
-0.414128 -1.236240 -3.972630 0.005289 -0.975567 -0.219639 
-0.494282 -1.236610 -3.964230 -0.020648 -0.964250 -0.264189 
-0.485907 -1.238970 -3.956350 -0.025165 -0.964961 -0.261183 
-0.589625 -1.237400 -3.954840 -0.018537 -0.962752 -0.269748 
-0.603056 -1.238230 -3.950550 -0.013302 -0.963140 -0.268673 
-0.383444 -1.013250 -3.904020 0.441699 0.453969 0.773831 
-0.290081 -1.214750 -4.052670 -0.034058 -0.993319 -0.110261 
-0.297452 -1.216490 -4.045600 -0.123825 -0.968913 -0.214186 
-0.274376 -1.208410 -4.075590 -0.029979 -0.961877 -0.271836 
-0.289649 -1.219920 -4.034170 -0.649118 -0.702219 0.292463 
-0.285210 -1.221290 -4.027130 -0.591656 -0.733694 0.334120 
-0.262801 -1.214790 -4.054530 -0.033149 -0.960291 -0.277025 
-0.276566 -1.214340 -4.054560 -0.019377 -0.960679 -0.276986 
-0.253395 -1.226620 -4.006340 0.073083 -0.992910 -0.093752 
-0.247414 -1.224220 -4.001550 -0.214750 -0.856063 0.470148 
-0.286408 -1.165740 -4.009980 0.159534 -0.959812 0.230887 
-0.293353 -1.165850 -4.016870 0.248496 -0.910846 0.329558 
-0.333338 -0.958433 -3.957400 0.111915 0.417920 0.901564 
-0.434106 -0.809064 -4.096140 0.320619 0.853730 -0.410304 
-0.448248 -0.801644 -4.092650 0.299251 0.830171 -0.470389 
-0.442181 -0.777048 -4.034080 0.812256 0.341532 -0.472859 
-0.441381 -0.783962 -4.039580 0.787165 0.591952 -0.173100 
-0.427229 -0.801026 -4.066700 0.551203 0.814228 -0.182230 
-0.436157 -0.792151 -4.052860 0.638800 0.740787 -0.207772 
-0.443555 -0.795191 -4.077110 0.430535 0.806470 -0.405272 
-0.431968 -0.803337 -4.082610 0.421384 0.832909 -0.358746 
-0.369574 -0.830753 -4.089870 0.321116 0.939086 -0.122485 
-0.398797 -0.816549 -4.065990 0.495320 0.866806 0.057490 
-0.374940 -0.827302 -4.074270 0.418380 0.908054 0.019930 
-0.507819 -0.796238 -4.107290 0.008090 0.689245 -0.724483 
-0.514883 -0.783579 -4.094900 0.050604 0.676632 -0.734580 
-0.494433 -0.812391 -4.123200 0.048184 0.772580 -0.633086 
-0.488876 -0.803516 -4.112510 0.132965 0.768703 -0.625632 
-0.471219 -0.826224 -4.139040 0.065038 0.774545 -0.629166 
-0.489831 -0.824887 -4.138270 -0.038063 0.726089 -0.686547 
-0.481271 -0.838571 -4.153560 -0.028233 0.726205 -0.686899 
-0.504556 -0.826546 -4.138060 -0.144204 0.708658 -0.690658 
-0.453042 -0.838263 -4.151190 0.133937 0.766002 -0.628731 
-0.467444 -0.837926 -4.152820 0.052906 0.743244 -0.666925 
-0.431808 -0.843981 -4.152140 0.195282 0.734297 -0.650133 
-0.436895 -0.836740 -4.144880 0.196190 0.797571 -0.570429 
-0.283140 -0.883111 -4.115540 0.478692 0.650418 -0.589754 
-0.292194 -0.912754 -4.146150 0.432369 0.503327 -0.748144 
-0.293554 -0.901105 -4.138430 0.436734 0.541570 -0.718307 
-0.275217 -0.914858 -4.137470 0.465880 0.505321 -0.726365 
-0.278145 -1.113800 -4.178310 0.709718 -0.209817 -0.672516 
-0.275661 -1.096720 -4.180560 0.773694 -0.203349 -0.600039 
-0.285043 -1.099990 -4.192760 0.791079 -0.139211 -0.595663 
-0.457528 -1.150290 -4.278520 0.090258 -0.704221 -0.704221 
-0.467950 -1.147650 -4.287510 0.431695 -0.421663 -0.797395 
-0.442530 -1.149330 -4.284570 -0.056100 -0.810180 -0.583491 
-0.422413 -1.149700 -4.282440 -0.149437 -0.536202 -0.830756 
-0.411830 -1.151380 -4.278300 0.174581 -0.426486 -0.887486 
-0.368236 -1.175580 -4.193350 -0.012505 -0.964629 -0.263314 
-0.380747 -1.175270 -4.193780 -0.017342 -0.963474 -0.267238 
-0.250402 -1.120330 -4.180560 -0.055356 0.052118 -0.997105 
-0.253027 -1.107390 -4.179850 -0.200274 0.033661 -0.979162 
-0.287653 -1.127950 -4.190450 0.834436 -0.176467 -0.522087 
-0.295253 -1.142240 -4.197060 0.806193 -0.101775 -0.582833 
-0.293971 -1.126830 -4.199250 0.742002 -0.124470 -0.658742 
-0.307220 -1.114990 -4.213770 0.688825 -0.046999 -0.723403 
-0.330076 -1.119400 -4.233230 0.669492 0.074943 -0.739029 
-0.296451 -1.111620 -4.204070 0.711118 -0.068808 -0.699697 
-0.357962 -1.154480 -4.258530 0.568192 -0.222126 -0.792350 
-0.368483 -1.153390 -4.264370 0.208822 -0.859003 -0.467448 
-0.357406 -1.142810 -4.259090 0.444387 -0.052426 -0.894300 
-0.341688 -1.163330 -4.239190 0.614911 -0.354487 -0.704432 
-0.345099 -1.161260 -4.245250 0.163616 -0.855623 -0.491059 
-0.331009 -1.163070 -4.232710 0.554969 -0.380499 -0.739750 
-0.331868 -1.166320 -4.229280 0.554969 -0.380499 -0.739750 
-0.352225 -1.166020 -4.229680 -0.009646 -0.958772 -0.284012 
-0.354067 -1.159580 -4.251770 0.189371 -0.859506 -0.474750 
-0.345108 -1.155750 -4.248030 0.163616 -0.855623 -0.491059 
-0.332285 -1.154520 -4.236170 0.613191 -0.379096 -0.693024 
-0.347996 -1.123200 -4.250040 0.606814 0.111406 -0.786998 
-0.362966 -1.127820 -4.261900 0.513900 0.098179 -0.852213 
-0.343588 -1.135320 -4.247910 0.622019 0.014857 -0.782861 
-0.623253 -1.158290 -4.239130 -0.016009 -0.964107 -0.265030 
-0.635013 -1.153060 -4.257360 -0.018572 -0.963238 -0.268007 
-0.608972 -1.152510 -4.260850 -0.018602 -0.963823 -0.265893 
-0.662581 -1.163330 -4.218310 -0.014424 -0.962214 -0.271914 
-0.652887 -1.168940 -4.199190 -0.019877 -0.962685 -0.269892 
-0.673121 -1.169090 -4.197740 -0.010796 -0.964034 -0.265559 
-0.639675 -1.163590 -4.218560 -0.019288 -0.961782 -0.273138 
-0.680695 -1.163370 -4.217140 -0.014505 -0.964195 -0.264796 
-0.669371 -1.159240 -4.232680 -0.016164 -0.962600 -0.270444 
-0.693840 -1.160360 -4.227460 -0.020855 -0.961753 -0.273124 
-0.696255 -1.164090 -4.213550 -0.021942 -0.961743 -0.273072 
-0.641927 -1.157880 -4.239410 -0.020358 -0.963906 -0.265464 
-0.614106 -1.120900 -4.303260 0.051928 0.312498 -0.948498 
-0.628675 -1.106050 -4.297520 -0.000275 0.368244 -0.929729 
-0.616658 -1.103560 -4.295260 0.156309 0.425191 -0.891504 
-0.877686 -1.008280 -4.151770 -0.297087 0.063734 -0.952721 
-0.881384 -0.996160 -4.149020 -0.403002 0.174995 -0.898313 
-0.863887 -0.983381 -4.158660 -0.592997 0.258012 -0.762748 
-0.743436 -1.097590 -4.269590 -0.210387 0.227794 -0.950709 
-0.729908 -1.078070 -4.267310 -0.163679 0.268307 -0.949327 
-0.723109 -1.090100 -4.271780 -0.184716 0.252493 -0.949804 
-0.739355 -1.143820 -4.278830 -0.260463 -0.133054 -0.956272 
-0.761946 -1.139100 -4.271380 -0.502731 -0.033225 -0.863804 
-0.740452 -1.134550 -4.278800 -0.255232 0.023227 -0.966601 
-0.783783 -1.137000 -4.259740 -0.490123 -0.088066 -0.867193 
-0.790038 -1.118790 -4.254520 -0.522257 0.104574 -0.846352 
-0.774515 -1.120850 -4.263350 -0.450060 0.118799 -0.885061 
-0.696515 -1.142320 -4.292300 -0.121266 -0.688984 -0.714560 
-0.696228 -1.133780 -4.293410 -0.760279 -0.622590 -0.185359 
-0.667771 -1.131790 -4.303880 -0.317642 -0.260092 -0.911842 
-0.774874 -1.153010 -4.250160 -0.032826 -0.960991 -0.274626 
-0.772875 -1.150410 -4.260170 -0.418339 -0.572847 -0.704868 
-0.748264 -1.150430 -4.260730 -0.019243 -0.964063 -0.264976 
-0.755001 -1.147490 -4.271260 -0.172322 -0.845311 -0.505721 
-0.737217 -1.146000 -4.277620 -0.260463 -0.133054 -0.956272 
-0.713153 -1.140920 -4.287420 -0.335999 -0.023786 -0.941562 
-0.708238 -1.143710 -4.287350 -0.046362 -0.945024 -0.323698 
-0.716273 -1.129780 -4.285130 -0.353661 0.151072 -0.923093 
-0.710394 -1.114990 -4.281730 -0.306274 0.337732 -0.890019 
-0.700942 -1.123800 -4.288190 -0.303685 0.327834 -0.894595 
-0.183856 -0.412046 -3.761920 0.812088 0.501637 0.298116 
-0.190859 -0.402353 -3.758090 0.986262 0.145762 0.077718 
-0.187090 -0.402405 -3.751020 0.843428 -0.474290 -0.252347 
-0.187254 -0.399387 -3.765600 0.538333 -0.251568 0.804308 
-0.183479 -0.395733 -3.747310 0.925649 -0.144306 -0.349785 
-0.185233 -0.387494 -3.748210 0.907932 0.154621 -0.389554 
-0.192771 -0.391621 -3.729460 0.776917 -0.210954 0.593211 
-0.200342 -0.384040 -3.675610 0.981136 -0.045439 0.187904 
-0.203209 -0.376089 -3.689610 0.836426 0.520336 -0.172167 
-0.211834 -0.370377 -3.675680 0.555630 0.774222 0.303078 
-0.153477 -0.394778 -3.817500 0.657423 0.442718 -0.609751 
-0.168484 -0.385820 -3.812150 0.006226 0.703113 -0.711051 
-0.163656 -0.377692 -3.794890 0.377011 0.920525 0.102450 
-0.349136 -0.345649 -3.660510 0.142283 0.671029 0.727651 
-0.380000 -0.331528 -3.668290 0.067110 0.702967 0.708050 
-0.355481 -0.351339 -3.652850 0.111925 0.649788 0.751830 
-0.416983 -0.316941 -3.686610 -0.096607 0.706652 0.700935 
-0.430062 -0.316734 -3.689140 -0.238603 0.808145 0.538489 
-0.399443 -0.329845 -3.669740 -0.059566 0.714240 0.697362 
-0.414156 -0.335350 -3.670670 -0.202080 0.530265 0.823397 
-0.439138 -0.301629 -3.710300 -0.191977 0.831205 0.521769 
-0.385115 -0.297437 -3.720560 0.163877 0.879678 0.446443 
-0.401389 -0.288491 -3.738420 0.059701 0.967103 0.247279 
-0.399588 -0.292948 -3.726460 0.044450 0.894420 0.445014 
-0.377278 -0.295277 -3.732390 0.190319 0.902032 0.387448 
-0.586196 -0.356244 -3.829850 -0.763958 0.636233 -0.107593 
-0.595040 -0.370637 -3.818420 -0.868791 0.490798 0.065729 
-0.577173 -0.345630 -3.814320 -0.673192 0.727239 -0.133926 
-0.586292 -0.358753 -3.800260 -0.854436 0.500708 0.138671 
-0.578609 -0.350783 -3.786950 -0.834608 0.485859 0.259557 
-0.597539 -0.379509 -3.809870 -0.821572 0.549984 0.150120 
-0.595890 -0.386876 -3.874770 -0.844894 0.502060 -0.184636 
-0.593106 -0.371915 -3.852100 -0.768149 0.609255 -0.196862 
-0.587870 -0.374205 -3.870820 -0.872050 0.472481 -0.127630 
-0.583039 -0.363183 -3.856790 -0.862769 0.490165 -0.123964 
-0.569756 -0.344225 -3.885270 -0.799382 0.565660 -0.202528 
-0.581164 -0.356612 -3.874490 -0.877444 0.472722 -0.081400 
-0.574297 -0.346026 -3.863000 -0.819478 0.573081 0.005816 
-0.551224 -0.325841 -3.877920 -0.613009 0.783312 -0.103162 
-0.561418 -0.331463 -3.871990 -0.638086 0.737746 -0.220403 
-0.581420 -0.453351 -3.686090 -0.671549 -0.053138 0.739053 
-0.579591 -0.434934 -3.688220 -0.548702 0.364751 0.752252 
-0.593063 -0.442663 -3.698260 -0.865953 0.225187 0.446560 
-0.602300 -0.462226 -3.706720 -0.774561 0.529552 0.345877 
-0.592590 -0.453481 -3.700940 -0.811907 0.210945 0.544343 
-0.617779 -0.449542 -3.729550 -0.839979 -0.211926 0.499522 
-0.612713 -0.441529 -3.724790 -0.476648 0.133715 0.868865 
-0.619732 -0.428002 -3.751170 -0.716210 0.691978 0.090606 
-0.611493 -0.427412 -3.737550 -0.390637 0.805517 0.445585 
-0.599634 -0.430556 -3.726620 -0.527880 0.690596 0.494388 
-0.619382 -0.430254 -3.768130 -0.744918 0.665447 -0.047722 
-0.618434 -0.431956 -3.840170 -0.991820 0.096468 0.083583 
-0.616318 -0.429315 -3.844310 -0.991820 0.096468 0.083583 
-0.616973 -0.428740 -3.817740 -0.931861 0.362592 -0.012734 
-0.615017 -0.416121 -3.822440 -0.994625 0.103538 0.001136 
-0.616386 -0.428789 -3.829510 -0.931804 0.351835 -0.089180 
-0.616018 -0.424085 -3.805260 -0.371582 0.917947 -0.138925 
-0.615422 -0.424465 -3.797110 -0.805614 0.592082 -0.020634 
-0.608864 -0.395303 -3.809060 -0.889678 0.435991 0.135594 
-0.601620 -0.386459 -3.795500 -0.823162 0.547085 0.151995 
-0.572619 -0.428607 -3.693160 -0.683063 0.677758 0.272156 
-0.567581 -0.437420 -3.681640 -0.779876 0.094259 0.618796 
-0.596538 -0.450484 -3.713490 -0.906244 0.276951 0.319407 
-0.598355 -0.441532 -3.717160 -0.624594 0.235594 0.744566 
-0.594540 -0.427347 -3.713360 -0.794088 0.602579 0.079520 
-0.588133 -0.422540 -3.715340 -0.470795 0.872333 0.131861 
-0.573864 -0.418543 -3.714910 -0.607425 0.609870 0.509013 
-0.600811 -0.422679 -3.748550 -0.692629 0.720402 0.035859 
-0.591228 -0.422744 -3.734150 -0.539544 0.778543 0.320568 
-0.583820 -0.418407 -3.729430 -0.702804 0.554792 0.445278 
-0.594206 -0.408355 -3.746970 -0.807190 0.325191 0.492641 
-0.583200 -0.406489 -3.730480 -0.769661 0.318526 0.553320 
-0.610223 -0.422395 -3.770420 -0.806147 0.591129 0.026320 
-0.611014 -0.411534 -3.792630 -0.931816 0.351318 0.091079 
-0.603674 -0.395550 -3.785770 -0.913842 0.344983 0.214196 
-0.595908 -0.386700 -3.768470 -0.865153 0.389765 0.315584 
-0.590697 -0.377195 -3.771250 -0.781305 0.585548 0.216095 
-0.595630 -0.398229 -3.758990 -0.864625 0.297507 0.404863 
-0.588788 -0.370915 -3.788920 -0.823417 0.526477 0.211674 
-0.581930 -0.363538 -3.778360 -0.838550 0.508491 0.195629 
-0.649483 -0.474462 -3.795160 -0.980626 0.171840 0.094043 
-0.646848 -0.462924 -3.796400 -0.840720 0.540957 -0.023557 
-0.637587 -0.454939 -3.786790 -0.787653 0.544586 0.288147 
-0.439039 -0.515127 -3.604870 -0.162405 -0.091236 0.982497 
-0.425673 -0.513889 -3.606880 -0.172899 -0.338413 0.924977 
-0.444084 -0.508931 -3.610900 0.023171 -0.390944 0.920123 
-0.404141 -0.507958 -3.596190 -0.297995 -0.162211 0.940684 
-0.421277 -0.504266 -3.596070 -0.323421 -0.293714 0.899517 
-0.402782 -0.512159 -3.602120 -0.193415 -0.447000 0.873374 
-0.439700 -0.503707 -3.602340 0.004059 -0.355613 0.934625 
-0.443552 -0.493902 -3.599620 -0.473481 -0.131227 0.870973 
-0.360319 -0.464772 -3.597770 -0.199398 0.223284 0.954141 
-0.363844 -0.452465 -3.599530 0.000392 -0.006399 0.999979 
-0.347215 -0.437047 -3.601320 0.005587 0.191025 0.981569 
-0.385637 -0.477774 -3.592240 0.106937 0.278516 0.954460 
-0.353594 -0.480597 -3.591160 -0.094741 0.214277 0.972167 
-0.337487 -0.477873 -3.590230 -0.017241 0.227698 0.973579 
-0.382168 -0.487171 -3.592330 -0.067232 -0.067699 0.995438 
-0.304047 -0.507658 -3.588530 -0.038064 0.120407 0.991995 
-0.288157 -0.499944 -3.589860 0.110554 0.160249 0.980866 
-0.323790 -0.504170 -3.591100 -0.026144 -0.044041 0.998688 
-0.301369 -0.494962 -3.591680 0.038582 0.111681 0.992995 
-0.387525 -0.495101 -3.591780 -0.068648 -0.085046 0.994009 
-0.368409 -0.498489 -3.589770 -0.090904 -0.069002 0.993466 
-0.429274 -0.470771 -3.604750 0.047694 0.489714 0.870578 
-0.429729 -0.467784 -3.612630 0.386626 0.416218 0.822972 
-0.460746 -0.461404 -3.611170 -0.167146 0.127668 0.977631 
-0.448025 -0.466659 -3.611450 -0.175739 0.319303 0.931215 
-0.442403 -0.458992 -3.607810 -0.010894 0.109803 0.993894 
-0.446444 -0.471565 -3.605460 -0.323340 0.351796 0.878460 
-0.435996 -0.474740 -3.602120 -0.044551 0.529469 0.847158 
-0.414746 -0.476964 -3.596750 0.299558 0.054900 0.952497 
-0.455025 -0.510889 -3.605550 0.192065 0.207721 0.959147 
-0.452628 -0.509542 -3.603360 -0.202141 0.900913 -0.384051 
-0.459440 -0.499456 -3.615960 -0.237823 0.930788 0.277621 
-0.465359 -0.494026 -3.620660 -0.237823 0.930788 0.277621 
-0.475420 -0.482599 -3.623530 -0.380446 -0.649719 0.658123 
-0.470215 -0.478296 -3.617350 -0.125035 -0.405494 0.905506 
-0.459156 -0.486216 -3.607470 -0.429124 -0.286833 0.856493 
-0.456385 -0.495762 -3.608700 -0.679351 0.727634 -0.095036 
-0.425728 -0.485540 -3.596440 -0.202080 0.214947 0.955490 
-0.449783 -0.478098 -3.603390 -0.471683 0.373583 0.798718 
-0.445706 -0.485070 -3.601660 -0.164474 0.214186 0.962846 
-0.397178 -0.496027 -3.594620 -0.138122 -0.064355 0.988322 
-0.417808 -0.493176 -3.597030 0.008564 0.021785 0.999726 
-0.385050 -0.520160 -3.592610 -0.221509 0.127422 0.966797 
-0.396320 -0.517472 -3.596320 0.395251 0.901518 0.176189 
-0.372604 -0.519804 -3.597400 -0.082130 0.209983 0.974249 
-0.386317 -0.515860 -3.598880 -0.221509 0.127422 0.966798 
-0.368403 -0.513762 -3.591930 -0.144927 0.031329 0.988946 
-0.386793 -0.509184 -3.594060 -0.207271 0.054806 0.976747 
-0.356525 -0.506985 -3.592150 -0.144356 -0.221767 0.964355 
-0.376599 -0.502447 -3.593570 -0.133242 -0.139036 0.981283 
-0.337855 -0.502394 -3.589460 -0.035488 -0.006939 0.999346 
-0.334617 -0.494937 -3.588780 0.001894 0.021941 0.999758 
-0.315490 -0.471861 -3.592080 0.041187 0.286924 0.957068 
-0.129397 -0.594465 -3.731900 0.953231 -0.126011 0.274721 
-0.136703 -0.575582 -3.717070 0.888548 -0.048634 0.456198 
-0.134609 -0.586656 -3.718650 0.857311 -0.147262 0.493287 
-0.213174 -0.716959 -3.793190 0.283413 -0.654901 0.700558 
-0.232139 -0.720252 -3.785770 0.462134 -0.775081 0.430909 
-0.719483 -0.474159 -3.985980 -0.425918 0.847131 0.317746 
-0.238249 -0.585550 -3.613030 0.223496 -0.517185 0.826178 
-0.222779 -0.586431 -3.618840 0.369359 -0.385040 0.845765 
-0.239373 -0.571831 -3.604750 0.459824 -0.296336 0.837106 
-0.395584 -0.544551 -3.596960 -0.211617 -0.168332 0.962747 
-0.417752 -0.540736 -3.599990 -0.126092 -0.154080 0.979980 
-0.188245 -0.531559 -3.639660 0.778653 0.134327 0.612908 
-0.205733 -0.517735 -3.627240 0.765827 0.045881 0.641408 
-0.206150 -0.528179 -3.623990 0.472792 0.139334 0.870088 
-0.226464 -0.524333 -3.610160 0.520366 0.038948 0.853055 
-0.210790 -0.539915 -3.620970 0.550550 0.102690 0.828462 
-0.175530 -0.449218 -3.698320 0.741835 -0.032503 -0.669794 
-0.178459 -0.453067 -3.699430 0.771918 0.094205 -0.628703 
-0.170650 -0.478907 -3.689450 0.941247 0.322092 0.101546 
-0.165330 -0.496688 -3.691920 0.956262 0.239453 0.168003 
-0.254757 -0.550143 -3.598140 0.227775 -0.106329 0.967891 
-0.230829 -0.555357 -3.607000 0.429283 -0.033740 0.902539 
-0.251798 -0.415262 -3.644940 0.454063 0.609459 0.649913 
-0.262761 -0.421002 -3.632800 0.436080 0.607479 0.663930 
-0.254717 -0.429364 -3.628910 0.465575 0.491303 0.736112 
-0.238651 -0.432225 -3.638920 0.628342 0.430805 0.647760 
-0.207855 -0.458899 -3.651580 0.166192 0.471903 0.865845 
-0.201668 -0.454071 -3.653500 0.190078 0.447576 0.873811 
-0.200552 -0.483204 -3.644940 0.648710 0.321954 0.689581 
-0.198022 -0.473140 -3.648090 0.562931 0.362489 0.742772 
-0.201532 -0.494230 -3.637000 0.721767 0.271907 0.636489 
-0.230356 -0.486096 -3.619640 0.558969 0.324566 0.763027 
-0.253080 -0.483510 -3.605400 0.388420 0.295997 0.872649 
-0.127019 -0.545710 -3.737370 0.891574 0.239640 0.384276 
-0.116003 -0.555193 -3.776260 0.969923 0.150586 0.191242 
-0.119596 -0.547001 -3.767670 0.979629 0.100450 0.173886 
-0.131906 -0.507392 -3.743670 0.897470 0.254255 0.360420 
-0.129780 -0.586576 -3.738790 0.948924 -0.078900 0.305481 
-0.124010 -0.582375 -3.747410 0.878595 -0.318267 0.356058 
-0.129095 -0.576237 -3.731900 0.867749 -0.283050 0.408527 
-0.139919 -0.561261 -3.708300 0.806822 0.018116 0.590517 
-0.112401 -0.567723 -3.776170 0.948640 -0.013085 0.316088 
-0.118666 -0.558286 -3.755780 0.982674 0.048753 0.178815 
-0.144290 -0.466773 -3.756360 0.875288 -0.320756 -0.361920 
-0.136570 -0.470625 -3.779010 0.979676 0.193167 -0.054052 
-0.133941 -0.471416 -3.787290 0.933175 0.336189 0.127126 
-0.123139 -0.495200 -3.829170 0.963925 0.205955 -0.168617 
-0.127618 -0.481953 -3.795010 0.938337 0.345451 0.013671 
-0.130889 -0.474051 -3.815300 0.957339 0.288957 0.002566 
-0.130661 -0.483377 -3.772920 0.978048 0.206252 -0.029699 
-0.162423 -0.427233 -3.748300 0.410360 0.579935 0.703761 
-0.176290 -0.414879 -3.746850 0.599492 0.483025 0.638197 
-0.189688 -0.407623 -3.741170 0.943205 -0.220812 0.248207 
-0.182988 -0.413452 -3.741040 0.286573 -0.486159 0.825546 
-0.159065 -0.435564 -3.738940 0.183619 0.472130 0.862193 
-0.149900 -0.449558 -3.737430 0.141892 -0.001804 0.989881 
-0.179345 -0.427044 -3.739680 0.339629 0.439611 0.831501 
-0.173847 -0.447108 -3.736560 0.473996 0.295662 0.829405 
-0.168478 -0.446666 -3.740210 0.002210 0.048123 0.998839 
-0.161039 -0.469483 -3.727910 0.562022 0.433253 0.704573 
-0.157777 -0.460892 -3.737920 0.525254 0.144726 0.838548 
-0.337750 -0.359902 -4.027990 0.211628 0.559655 -0.801249 
-0.339853 -0.348290 -4.021470 0.242688 0.580559 -0.777209 
-0.321288 -0.340524 -4.005470 0.375743 0.664965 -0.645475 
-0.365694 -0.357347 -4.034790 0.019380 0.491835 -0.870473 
-0.364764 -0.342254 -4.027650 0.164468 0.549379 -0.819227 
-0.369472 -0.390385 -4.050660 0.139973 0.180652 -0.973536 
-0.397518 -0.378746 -4.048440 0.077901 0.375585 -0.923508 
-0.372283 -0.380343 -4.049460 0.087570 0.346979 -0.933776 
-0.405093 -0.385149 -4.049180 0.017965 0.327119 -0.944812 
-0.375175 -0.372122 -4.043620 0.065991 0.452201 -0.889472 
-0.392396 -0.364613 -4.040440 0.070677 0.448787 -0.890839 
-0.384621 -0.352979 -4.033610 0.081526 0.434413 -0.897017 
-0.320237 -0.358515 -4.023670 0.370928 0.573970 -0.730049 
-0.302929 -0.347786 -4.004140 0.364496 0.625494 -0.689855 
-0.491675 -0.434603 -4.047670 -0.330891 0.265250 -0.905623 
-0.451105 -0.430578 -4.059280 -0.200699 0.285386 -0.937163 
-0.477987 -0.447544 -4.056870 -0.349438 0.340556 -0.872877 
-0.482979 -0.439320 -4.049210 -0.358499 0.249503 -0.899570 
-0.458192 -0.424638 -4.053750 -0.186435 0.282079 -0.941102 
-0.426507 -0.426646 -4.062470 -0.016796 0.309188 -0.950853 
-0.429151 -0.416544 -4.058850 -0.121464 0.391020 -0.912332 
-0.435249 -0.410023 -4.053570 -0.061649 0.317377 -0.946294 
-0.367782 -0.271327 -3.868470 0.209185 0.977377 0.031224 
-0.390883 -0.267179 -3.872790 0.122983 0.989617 -0.074382 
-0.393870 -0.267772 -3.862290 0.034866 0.999322 -0.011806 
-0.370930 -0.271720 -3.878660 0.213799 0.960496 -0.178149 
-0.365172 -0.276384 -3.890650 0.189126 0.971318 -0.144131 
-0.346653 -0.277808 -3.878260 0.336420 0.938583 -0.076700 
-0.349504 -0.276492 -3.860750 0.311525 0.947814 0.067830 
-0.343656 -0.281213 -3.888120 0.277936 0.957736 -0.074114 
-0.385069 -0.271778 -3.893310 0.117035 0.977408 -0.175999 
-0.402640 -0.268251 -3.887900 0.033683 0.976969 -0.210706 
-0.393376 -0.272229 -3.899110 0.107530 0.969121 -0.221903 
-0.418728 -0.271321 -3.897910 -0.076630 0.958488 -0.274643 
-0.409384 -0.275031 -3.908970 -0.118757 0.943592 -0.309081 
-0.309169 -0.321634 -3.713390 0.379502 0.893242 0.241033 
-0.303321 -0.334426 -3.697730 0.520704 0.705739 0.480417 
-0.293720 -0.337629 -3.701840 0.534687 0.681398 0.499806 
-0.283882 -0.328788 -3.749260 0.532629 0.798884 0.279446 
-0.311931 -0.312051 -3.746480 0.517079 0.838203 0.173336 
-0.291617 -0.327951 -3.732950 0.555774 0.797964 0.233172 
-0.457679 -0.275176 -3.873290 -0.242908 0.963702 -0.110790 
-0.448081 -0.271578 -3.855250 -0.225958 0.973652 -0.030731 
-0.437547 -0.269007 -3.862140 -0.154235 0.983208 -0.097543 
-0.279405 -0.340332 -3.714820 0.611251 0.731573 0.301950 
-0.274806 -0.342618 -3.728750 0.664418 0.711283 0.229401 
-0.358265 -0.283786 -3.800510 0.300145 0.944950 0.130320 
-0.365126 -0.283273 -3.783610 0.261201 0.948397 0.179770 
-0.338615 -0.290511 -3.790340 0.296673 0.938697 0.175591 
-0.577444 -0.448934 -3.974390 -0.793371 0.237830 -0.560356 
-0.600981 -0.476140 -3.993670 0.254344 0.950704 0.177401 
-0.598401 -0.478209 -3.983380 -0.202870 0.979102 -0.014275 
-0.588232 -0.473739 -3.972660 -0.495956 0.839423 -0.222255 
-0.592495 -0.472572 -3.961390 -0.583715 0.637587 -0.502752 
-0.591231 -0.465840 -3.956510 -0.836700 0.303553 -0.455839 
-0.589189 -0.453842 -3.956600 -0.757936 0.198434 -0.621415 
-0.582245 -0.438304 -3.966300 -0.863011 0.121787 -0.490285 
-0.605021 -0.462992 -3.930810 -0.698526 0.558376 -0.447525 
-0.618996 -0.474592 -3.937320 -0.244116 0.969178 -0.033193 
-0.619385 -0.467787 -3.918640 -0.623470 0.738671 -0.256224 
-0.597857 -0.464892 -3.949990 -0.578164 0.649755 -0.493502 
-0.603572 -0.464948 -3.938130 -0.895260 0.358477 -0.264581 
-0.596124 -0.434310 -3.940850 -0.860095 0.153371 -0.486533 
-0.604595 -0.446722 -3.927590 -0.935668 0.180232 -0.303383 
-0.603696 -0.430674 -3.919160 -0.961904 0.211102 -0.173717 
-0.597969 -0.449196 -3.943350 -0.772467 0.217849 -0.596520 
-0.615957 -0.428898 -3.874370 -0.946861 0.268117 -0.177675 
-0.617535 -0.443871 -3.881940 -0.779397 0.543554 -0.311591 
-0.611434 -0.428962 -3.883540 -0.919838 0.248306 -0.303714 
-0.643573 -0.465930 -3.861550 -0.869198 -0.459496 -0.182641 
-0.644899 -0.458961 -3.855650 -0.997896 0.050411 0.040782 
-0.631816 -0.456938 -3.885240 -0.892184 0.113882 -0.437080 
-0.625697 -0.451077 -3.888080 -0.555499 0.632356 -0.539950 
-0.620522 -0.458908 -3.900410 -0.623044 0.544925 -0.561135 
-0.613037 -0.459437 -3.909340 -0.708766 0.606971 -0.359496 
-0.626043 -0.463026 -3.894140 -0.693715 0.432944 -0.575603 
-0.610310 -0.431298 -3.892810 -0.939691 0.138376 -0.312781 
-0.613155 -0.452220 -3.897380 -0.703521 0.630940 -0.327069 
-0.611255 -0.447238 -3.893890 -0.707978 0.346551 -0.615362 
-0.608123 -0.451059 -3.911560 -0.933486 0.275864 -0.229137 
-0.608845 -0.459755 -3.920950 -0.658290 0.630867 -0.410685 
-0.604808 -0.428295 -3.903810 -0.881168 0.383217 -0.276927 
-0.596696 -0.412297 -3.927320 -0.937988 0.292633 -0.185863 
-0.597935 -0.406912 -3.916200 -0.911441 0.398183 -0.103566 
-0.599371 -0.412942 -3.902510 -0.912604 0.361930 -0.190159 
-0.392477 -0.345707 -4.032010 0.028649 0.527118 -0.849309 
-0.385671 -0.338936 -4.027160 0.043187 0.657879 -0.751884 
-0.365666 -0.329604 -4.016380 0.154989 0.757676 -0.633961 
-0.376747 -0.328038 -4.012610 0.058083 0.793020 -0.606421 
-0.363899 -0.318347 -3.998150 0.106491 0.763640 -0.636799 
-0.383339 -0.324522 -4.011710 0.055456 0.740071 -0.670238 
-0.340348 -0.308650 -3.974920 0.285842 0.819751 -0.496289 
-0.349627 -0.319410 -3.999450 0.224333 0.760018 -0.609957 
-0.372657 -0.310856 -3.995000 0.132238 0.771520 -0.622311 
-0.357894 -0.304610 -3.981160 0.208620 0.862151 -0.461707 
-0.307115 -0.311350 -3.958670 0.412167 0.777751 -0.474576 
-0.322094 -0.296037 -3.942140 0.331397 0.915019 -0.230036 
-0.338272 -0.292658 -3.946160 0.177123 0.957378 -0.228156 
-0.336848 -0.290909 -3.933960 0.212856 0.937809 -0.274239 
-0.316188 -0.295867 -3.925860 0.330591 0.929595 -0.162983 
-0.415043 -0.322897 -4.008990 -0.049516 0.733909 -0.677440 
-0.404160 -0.324352 -4.013010 -0.049516 0.733909 -0.677440 
-0.388272 -0.311075 -3.994810 -0.077485 0.831016 -0.550826 
-0.373043 -0.302243 -3.980970 -0.032292 0.894456 -0.445989 
-0.355216 -0.295867 -3.963270 0.102239 0.904280 -0.414519 
-0.395621 -0.307662 -3.988570 -0.025190 0.887040 -0.461004 
-0.373173 -0.298286 -3.969790 0.041632 0.930679 -0.363462 
-0.370420 -0.295472 -3.959130 0.029247 0.921915 -0.386288 
-0.409862 -0.309392 -3.988940 -0.045702 0.873460 -0.484746 
-0.393122 -0.304233 -3.978410 -0.056424 0.880970 -0.469795 
-0.373843 -0.289525 -3.949990 0.052901 0.897743 -0.437332 
-0.436447 -0.310785 -3.986470 -0.199141 0.843639 -0.498614 
-0.564770 -0.374279 -3.950520 -0.741891 0.627763 -0.235609 
-0.554199 -0.359500 -3.948970 -0.687539 0.605400 -0.400975 
-0.541367 -0.341973 -3.947180 -0.507100 0.653060 -0.562461 
-0.542364 -0.349337 -3.953670 -0.639290 0.715644 -0.281355 
-0.554863 -0.364010 -3.964140 -0.768239 0.576479 -0.278354 
-0.541898 -0.353622 -3.970130 -0.651429 0.591104 -0.475643 
-0.566487 -0.379969 -3.963800 -0.813324 0.465899 -0.348486 
-0.532074 -0.350276 -3.977140 -0.513476 0.603551 -0.609974 
-0.516762 -0.336415 -3.970160 -0.536265 0.797076 -0.277651 
-0.509308 -0.335241 -3.978720 -0.486261 0.673751 -0.556427 
-0.499883 -0.341769 -3.991940 -0.373943 0.612313 -0.696591 
-0.475012 -0.322409 -3.983940 -0.326529 0.736754 -0.592091 
-0.453595 -0.316524 -3.988170 -0.277891 0.772622 -0.570817 
-0.413143 -0.300900 -3.974860 -0.052253 0.860139 -0.507377 
-0.402183 -0.299874 -3.973710 0.006303 0.875370 -0.483412 
-0.433525 -0.304662 -3.975850 -0.165208 0.866789 -0.470513 
-0.438375 -0.301128 -3.965710 -0.156535 0.889082 -0.430152 
-0.420495 -0.293702 -3.955770 -0.076060 0.933886 -0.349387 
-0.432101 -0.291524 -3.950210 -0.203129 0.895696 -0.395559 
-0.466820 -0.314581 -3.977360 -0.307366 0.804091 -0.508884 
-0.456178 -0.310436 -3.976340 -0.242786 0.861525 -0.445902 
-0.533854 -0.326107 -3.935530 -0.492430 0.764813 -0.415421 
-0.540752 -0.325010 -3.917400 -0.471648 0.836852 -0.277899 
-0.521831 -0.318677 -3.933930 -0.453774 0.793998 -0.404545 
-0.555487 -0.340666 -3.927250 -0.674922 0.644316 -0.359636 
-0.515955 -0.332819 -3.956940 -0.533499 0.742679 -0.404731 
-0.527589 -0.338744 -3.954990 -0.476092 0.672021 -0.567208 
-0.497841 -0.314804 -3.947400 -0.379825 0.818653 -0.430744 
-0.537264 -0.334957 -3.941370 -0.497924 0.652217 -0.571564 
-0.525989 -0.329718 -3.946160 -0.489491 0.643853 -0.588092 
-0.508007 -0.314906 -3.940750 -0.422818 0.830754 -0.362039 
-0.496540 -0.304569 -3.933800 -0.355602 0.833802 -0.422280 
-0.485484 -0.306930 -3.944000 -0.350828 0.820979 -0.450459 
-0.277818 -0.358537 -3.995800 0.623566 0.473537 -0.622035 
-0.279557 -0.346847 -3.982180 0.553740 0.677889 -0.483568 
-0.290539 -0.397648 -4.020420 0.739721 0.661814 -0.121720 
-0.295318 -0.390531 -4.021380 0.048915 0.132607 -0.989961 
-0.305054 -0.380485 -4.020420 0.378284 0.302787 -0.874769 
-0.302274 -0.375588 -4.019310 0.296905 0.325143 -0.897847 
-0.274061 -0.385032 -4.005500 0.527234 0.268127 -0.806307 
-0.275467 -0.369809 -4.001830 0.554916 0.312369 -0.771034 
-0.254575 -0.385254 -3.992470 0.697165 0.291218 -0.655098 
-0.253574 -0.365033 -3.973040 0.779708 0.506920 -0.367544 
-0.257111 -0.355197 -3.968250 0.602861 0.641101 -0.474919 
-0.189879 -0.480770 -3.980820 0.867171 -0.130004 -0.480743 
-0.166603 -0.467648 -3.939430 0.912464 0.098113 -0.397219 
-0.159578 -0.490084 -3.932260 0.880873 0.263992 -0.392901 
-0.160632 -0.476949 -3.930130 0.932041 0.249864 -0.262427 
-0.141284 -0.468386 -3.894140 0.837110 0.156962 -0.524033 
-0.164783 -0.470490 -3.929940 0.935161 0.101525 -0.339362 
-0.182642 -0.394089 -3.861640 0.760997 0.634393 -0.135751 
-0.190191 -0.388665 -3.879430 0.818280 0.559574 -0.131510 
-0.192950 -0.380238 -3.861610 0.789117 0.612578 -0.045209 
-0.199351 -0.376697 -3.890770 0.788876 0.560374 -0.252300 
-0.227975 -0.362611 -3.937570 0.696435 0.596969 -0.398255 
-0.240380 -0.359652 -3.951570 0.606006 0.661497 -0.441790 
-0.235160 -0.353952 -3.931330 0.714512 0.587687 -0.379600 
-0.253827 -0.351225 -3.954040 0.645276 0.585485 -0.490741 
-0.236315 -0.368249 -3.953230 0.718295 0.529577 -0.451222 
-0.221466 -0.376577 -3.940140 0.758183 0.457062 -0.465031 
-0.217487 -0.371112 -3.929730 0.761346 0.531749 -0.370939 
-0.231950 -0.377661 -3.961420 0.698118 0.495439 -0.516886 
-0.221333 -0.386709 -3.951010 0.795049 0.453683 -0.402578 
-0.247634 -0.340684 -3.937760 0.635624 0.601589 -0.483811 
-0.232963 -0.346810 -3.922960 0.703486 0.623900 -0.340376 
-0.263478 -0.335337 -3.952680 0.613867 0.626462 -0.480325 
-0.219733 -0.356078 -3.914250 0.736433 0.581653 -0.345465 
-0.224762 -0.359920 -3.922840 0.673982 0.580011 -0.457531 
-0.215970 -0.367779 -3.918020 0.745478 0.540850 -0.389543 
-0.210336 -0.380173 -3.922340 0.786533 0.507759 -0.351492 
-0.206249 -0.375607 -3.907110 0.790857 0.530034 -0.305956 
-0.211491 -0.365413 -3.907580 0.836938 0.478067 -0.266433 
-0.180905 -0.378644 -3.797020 -0.130986 0.956060 -0.262282 
-0.188841 -0.378193 -3.787870 -0.215101 0.972454 -0.089809 
-0.172568 -0.376725 -3.781940 0.031144 0.997961 0.055707 
